2304.000000 -1980.826747 1023.884453
2304.000000 -1980.862777 1025.884129
2304.000000 -1980.898807 1027.883804
2304.000000 -1980.934837 1029.883479
2304.000000 -1980.970868 1031.883155
2304.000000 -1981.006898 1033.882830
2304.000000 -1981.042928 1035.882506
2304.000000 -1981.078958 1037.882181
2304.000000 -1981.114988 1039.881857
2304.000000 -1981.151019 1041.881532
2304.000000 -1981.187049 1043.881207
2304.000000 -1981.223079 1045.880883
2304.000000 -1981.259109 1047.880558
2304.000000 -1981.295139 1049.880234
2304.000000 -1981.331170 1051.879909
2304.000000 -1981.367200 1053.879585
2304.000000 -1981.403230 1055.879260
2304.000000 -1981.439260 1057.878935
2304.000000 -1981.475290 1059.878611
2304.000000 -1981.511320 1061.878286
2304.000000 -1981.547351 1063.877962
2304.000000 -1981.583381 1065.877637
2304.000000 -1981.619411 1067.877313
2304.000000 -1981.655441 1069.876988
2304.000000 -1981.691471 1071.876663
2304.000000 -1981.727502 1073.876339
2304.000000 -1981.763532 1075.876014
2304.000000 -1981.799562 1077.875690
2304.000000 -1981.835592 1079.875365
2304.000000 -1981.871622 1081.875041
2304.000000 -1981.907653 1083.874716
2304.000000 -1981.943683 1085.874391
2304.000000 -1981.979713 1087.874067
2304.000000 -1982.015743 1089.873742
2304.000000 -1982.051773 1091.873418
2304.000000 -1982.087803 1093.873093
2304.000000 -1982.123834 1095.872769
2304.000000 -1982.159864 1097.872444
2304.000000 -1982.195894 1099.872119
2304.000000 -1982.231924 1101.871795
2304.000000 -1982.267954 1103.871470
2304.000000 -1982.303985 1105.871146
2304.000000 -1982.340015 1107.870821
2304.000000 -1982.376045 1109.870497
2304.000000 -1982.412075 1111.870172
2304.000000 -1982.448105 1113.869847
2304.000000 -1982.484136 1115.869523
2304.000000 -1982.520166 1117.869198
2304.000000 -1982.556196 1119.868874
2304.000000 -1982.592226 1121.868549
2304.000000 -1982.628256 1123.868225
2304.000000 -1982.664286 1125.867900
2304.000000 -1982.700317 1127.867575
2304.000000 -1982.736347 1129.867251
2304.000000 -1982.772377 1131.866926
2304.000000 -1982.808407 1133.866602
2304.000000 -1982.844437 1135.866277
2304.000000 -1982.880468 1137.865953
2304.000000 -1982.916498 1139.865628
2304.000000 -1982.952528 1141.865303
2304.000000 -1982.988558 1143.864979
2304.000000 -1983.024588 1145.864654
2304.000000 -1983.060619 1147.864330
2304.000000 -1983.096649 1149.864005
2304.000000 -1983.132679 1151.863681
2304.000000 -1983.168709 1153.863356
2304.000000 -1983.204739 1155.863031
2304.000000 -1983.240769 1157.862707
2304.000000 -1983.276800 1159.862382
2304.000000 -1983.312830 1161.862058
2304.000000 -1983.348860 1163.861733
2304.000000 -1983.384890 1165.861409
2304.000000 -1983.420920 1167.861084
2304.000000 -1983.456951 1169.860759
2304.000000 -1983.492981 1171.860435
2304.000000 -1983.529011 1173.860110
2304.000000 -1983.565041 1175.859786
2304.000000 -1983.601071 1177.859461
2304.000000 -1983.637102 1179.859137
2304.000000 -1983.673132 1181.858812
2304.000000 -1983.709162 1183.858488
2304.000000 -1983.745192 1185.858163
2304.000000 -1983.781222 1187.857838
2304.000000 -1983.817253 1189.857514
2304.000000 -1983.853283 1191.857189
2304.000000 -1983.889313 1193.856865
2304.000000 -1983.925343 1195.856540
2304.000000 -1983.961373 1197.856216
2304.000000 -1984.000000 1200.000000
2302.083736 -1984.572655 1200.000000
2300.167473 -1985.145310 1200.000000
2298.251209 -1985.717966 1200.000000
2296.334946 -1986.290621 1200.000000
2294.418682 -1986.863276 1200.000000
2292.502419 -1987.435931 1200.000000
2290.586155 -1988.008586 1200.000000
2288.669891 -1988.581241 1200.000000
2286.753628 -1989.153897 1200.000000
2284.837364 -1989.726552 1200.000000
2282.921101 -1990.299207 1200.000000
2281.004837 -1990.871862 1200.000000
2279.088574 -1991.444517 1200.000000
2277.172310 -1992.017172 1200.000000
2275.256046 -1992.589828 1200.000000
2273.339783 -1993.162483 1200.000000
2271.423519 -1993.735138 1200.000000
2269.507256 -1994.307793 1200.000000
2267.590992 -1994.880448 1200.000000
2265.674729 -1995.453103 1200.000000
2263.758465 -1996.025759 1200.000000
2261.842202 -1996.598414 1200.000000
2259.925938 -1997.171069 1200.000000
2258.009674 -1997.743724 1200.000000
2256.093411 -1998.316379 1200.000000
2254.177147 -1998.889034 1200.000000
2252.260884 -1999.461690 1200.000000
2250.344620 -2000.034345 1200.000000
2248.428357 -2000.607000 1200.000000
2246.512093 -2001.179655 1200.000000
2244.595829 -2001.752310 1200.000000
2242.679566 -2002.324965 1200.000000
2240.763302 -2002.897621 1200.000000
2238.847039 -2003.470276 1200.000000
2236.930775 -2004.042931 1200.000000
2235.014512 -2004.615586 1200.000000
2233.098248 -2005.188241 1200.000000
2231.181984 -2005.760896 1200.000000
2229.265721 -2006.333552 1200.000000
2227.349457 -2006.906207 1200.000000
2225.433194 -2007.478862 1200.000000
2223.516930 -2008.051517 1200.000000
2221.600667 -2008.624172 1200.000000
2219.684403 -2009.196827 1200.000000
2217.768139 -2009.769483 1200.000000
2215.851876 -2010.342138 1200.000000
2213.935612 -2010.914793 1200.000000
2212.019349 -2011.487448 1200.000000
2210.103085 -2012.060103 1200.000000
2208.186822 -2012.632758 1200.000000
2206.270558 -2013.205414 1200.000000
2204.354294 -2013.778069 1200.000000
2202.438031 -2014.350724 1200.000000
2200.521767 -2014.923379 1200.000000
2198.605504 -2015.496034 1200.000000
2196.689240 -2016.068689 1200.000000
2194.772977 -2016.641345 1200.000000
2192.856713 -2017.214000 1200.000000
2190.940450 -2017.786655 1200.000000
2189.024186 -2018.359310 1200.000000
2187.107922 -2018.931965 1200.000000
2185.191659 -2019.504620 1200.000000
2183.275395 -2020.077276 1200.000000
2181.359132 -2020.649931 1200.000000
2179.442868 -2021.222586 1200.000000
2177.526605 -2021.795241 1200.000000
2175.610341 -2022.367896 1200.000000
2173.694077 -2022.940551 1200.000000
2171.777814 -2023.513207 1200.000000
2169.861550 -2024.085862 1200.000000
2167.945287 -2024.658517 1200.000000
2166.029023 -2025.231172 1200.000000
2164.112760 -2025.803827 1200.000000
2162.196496 -2026.376482 1200.000000
2160.280232 -2026.949138 1200.000000
2158.363969 -2027.521793 1200.000000
2156.447705 -2028.094448 1200.000000
2154.531442 -2028.667103 1200.000000
2152.615178 -2029.239758 1200.000000
2150.698915 -2029.812413 1200.000000
2148.782651 -2030.385069 1200.000000
2146.866387 -2030.957724 1200.000000
2144.950124 -2031.530379 1200.000000
2143.033860 -2032.103034 1200.000000
2141.117597 -2032.675689 1200.000000
2139.201333 -2033.248344 1200.000000
2137.285070 -2033.821000 1200.000000
2135.368806 -2034.393655 1200.000000
2133.452542 -2034.966310 1200.000000
2131.536279 -2035.538965 1200.000000
2129.620015 -2036.111620 1200.000000
2127.703752 -2036.684275 1200.000000
2125.787488 -2037.256931 1200.000000
2123.871225 -2037.829586 1200.000000
2121.954961 -2038.402241 1200.000000
2120.038698 -2038.974896 1200.000000
2118.122434 -2039.547551 1200.000000
2116.206170 -2040.120206 1200.000000
2114.289907 -2040.692862 1200.000000
2112.373643 -2041.265517 1200.000000
2110.457380 -2041.838172 1200.000000
2108.541116 -2042.410827 1200.000000
2106.624853 -2042.983482 1200.000000
2104.708589 -2043.556137 1200.000000
2102.792325 -2044.128793 1200.000000
2100.876062 -2044.701448 1200.000000
2098.959798 -2045.274103 1200.000000
2097.043535 -2045.846758 1200.000000
2095.127271 -2046.419413 1200.000000
2093.211008 -2046.992068 1200.000000
2091.294744 -2047.564724 1200.000000
2089.378480 -2048.137379 1200.000000
2087.462217 -2048.710034 1200.000000
2085.545953 -2049.282689 1200.000000
2083.629690 -2049.855344 1200.000000
2081.713426 -2050.427999 1200.000000
2079.797163 -2051.000655 1200.000000
2077.880899 -2051.573310 1200.000000
2075.964635 -2052.145965 1200.000000
2074.048372 -2052.718620 1200.000000
2072.132108 -2053.291275 1200.000000
2070.215845 -2053.863930 1200.000000
2068.299581 -2054.436586 1200.000000
2066.383318 -2055.009241 1200.000000
2064.467054 -2055.581896 1200.000000
2062.550790 -2056.154551 1200.000000
2060.634527 -2056.727206 1200.000000
2058.718263 -2057.299861 1200.000000
2056.802000 -2057.872517 1200.000000
2054.885736 -2058.445172 1200.000000
2052.969473 -2059.017827 1200.000000
2051.053209 -2059.590482 1200.000000
2049.136946 -2060.163137 1200.000000
2047.220682 -2060.735792 1200.000000
2045.304418 -2061.308448 1200.000000
2043.388155 -2061.881103 1200.000000
2041.471891 -2062.453758 1200.000000
2039.555628 -2063.026413 1200.000000
2037.639364 -2063.599068 1200.000000
2035.723101 -2064.171723 1200.000000
2033.806837 -2064.744379 1200.000000
2031.890573 -2065.317034 1200.000000
2029.974310 -2065.889689 1200.000000
2028.058046 -2066.462344 1200.000000
2026.141783 -2067.034999 1200.000000
2024.225519 -2067.607654 1200.000000
2022.309256 -2068.180310 1200.000000
2020.392992 -2068.752965 1200.000000
2018.476728 -2069.325620 1200.000000
2016.560465 -2069.898275 1200.000000
2014.644201 -2070.470930 1200.000000
2012.727938 -2071.043585 1200.000000
2010.811674 -2071.616241 1200.000000
2008.895411 -2072.188896 1200.000000
2006.979147 -2072.761551 1200.000000
2005.062883 -2073.334206 1200.000000
2003.146620 -2073.906861 1200.000000
2001.230356 -2074.479516 1200.000000
1999.314093 -2075.052172 1200.000000
1997.397829 -2075.624827 1200.000000
1995.481566 -2076.197482 1200.000000
1993.565302 -2076.770137 1200.000000
1991.649038 -2077.342792 1200.000000
1989.732775 -2077.915447 1200.000000
1987.816511 -2078.488103 1200.000000
1985.900248 -2079.060758 1200.000000
1983.983984 -2079.633413 1200.000000
1982.067721 -2080.206068 1200.000000
1980.151457 -2080.778723 1200.000000
1978.235194 -2081.351378 1200.000000
1976.318930 -2081.924034 1200.000000
1974.402666 -2082.496689 1200.000000
1972.486403 -2083.069344 1200.000000
1970.570139 -2083.641999 1200.000000
1968.653876 -2084.214654 1200.000000
1966.737612 -2084.787309 1200.000000
1964.821349 -2085.359965 1200.000000
1962.905085 -2085.932620 1200.000000
1960.988821 -2086.505275 1200.000000
1959.072558 -2087.077930 1200.000000
1957.156294 -2087.650585 1200.000000
1955.240031 -2088.223240 1200.000000
1953.323767 -2088.795896 1200.000000
1951.407504 -2089.368551 1200.000000
1949.491240 -2089.941206 1200.000000
1947.574976 -2090.513861 1200.000000
1945.658713 -2091.086516 1200.000000
1943.742449 -2091.659171 1200.000000
1941.826186 -2092.231827 1200.000000
1939.909922 -2092.804482 1200.000000
1937.993659 -2093.377137 1200.000000
1936.077395 -2093.949792 1200.000000
1934.161131 -2094.522447 1200.000000
1932.244868 -2095.095102 1200.000000
1930.328604 -2095.667758 1200.000000
1928.412341 -2096.240413 1200.000000
1926.496077 -2096.813068 1200.000000
1924.579814 -2097.385723 1200.000000
1922.663550 -2097.958378 1200.000000
1920.747287 -2098.531033 1200.000000
1918.831023 -2099.103689 1200.000000
1916.914759 -2099.676344 1200.000000
1914.998496 -2100.248999 1200.000000
1913.082232 -2100.821654 1200.000000
1911.165969 -2101.394309 1200.000000
1909.249705 -2101.966964 1200.000000
1907.333442 -2102.539620 1200.000000
1905.417178 -2103.112275 1200.000000
1903.500914 -2103.684930 1200.000000
1901.584651 -2104.257585 1200.000000
1899.668387 -2104.830240 1200.000000
1897.752124 -2105.402895 1200.000000
1895.835860 -2105.975551 1200.000000
1893.919597 -2106.548206 1200.000000
1892.003333 -2107.120861 1200.000000
1890.087069 -2107.693516 1200.000000
1888.170806 -2108.266171 1200.000000
1886.254542 -2108.838826 1200.000000
1884.338279 -2109.411482 1200.000000
1882.422015 -2109.984137 1200.000000
1880.505752 -2110.556792 1200.000000
1878.589488 -2111.129447 1200.000000
1876.673224 -2111.702102 1200.000000
1874.756961 -2112.274757 1200.000000
1872.840697 -2112.847413 1200.000000
1870.924434 -2113.420068 1200.000000
1869.008170 -2113.992723 1200.000000
1867.091907 -2114.565378 1200.000000
1865.175643 -2115.138033 1200.000000
1863.259379 -2115.710688 1200.000000
1861.343116 -2116.283344 1200.000000
1859.426852 -2116.855999 1200.000000
1857.510589 -2117.428654 1200.000000
1855.594325 -2118.001309 1200.000000
1853.678062 -2118.573964 1200.000000
1851.761798 -2119.146619 1200.000000
1849.845535 -2119.719275 1200.000000
1847.929271 -2120.291930 1200.000000
1846.013007 -2120.864585 1200.000000
1844.096744 -2121.437240 1200.000000
1842.180480 -2122.009895 1200.000000
1840.264217 -2122.582550 1200.000000
1838.347953 -2123.155206 1200.000000
1836.431690 -2123.727861 1200.000000
1834.515426 -2124.300516 1200.000000
1832.599162 -2124.873171 1200.000000
1830.682899 -2125.445826 1200.000000
1828.766635 -2126.018481 1200.000000
1826.850372 -2126.591137 1200.000000
1824.934108 -2127.163792 1200.000000
1823.017845 -2127.736447 1200.000000
1821.101581 -2128.309102 1200.000000
1819.185317 -2128.881757 1200.000000
1817.269054 -2129.454412 1200.000000
1815.352790 -2130.027068 1200.000000
1813.436527 -2130.599723 1200.000000
1811.520263 -2131.172378 1200.000000
1809.604000 -2131.745033 1200.000000
1807.687736 -2132.317688 1200.000000
1805.771472 -2132.890343 1200.000000
1803.855209 -2133.462999 1200.000000
1801.938945 -2134.035654 1200.000000
1800.022682 -2134.608309 1200.000000
1798.106418 -2135.180964 1200.000000
1796.190155 -2135.753619 1200.000000
1794.273891 -2136.326274 1200.000000
1792.357627 -2136.898930 1200.000000
1790.441364 -2137.471585 1200.000000
1788.525100 -2138.044240 1200.000000
1786.608837 -2138.616895 1200.000000
1784.692573 -2139.189550 1200.000000
1782.776310 -2139.762205 1200.000000
1780.860046 -2140.334861 1200.000000
1778.943783 -2140.907516 1200.000000
1777.027519 -2141.480171 1200.000000
1775.111255 -2142.052826 1200.000000
1773.194992 -2142.625481 1200.000000
1771.278728 -2143.198136 1200.000000
1769.362465 -2143.770792 1200.000000
1767.446201 -2144.343447 1200.000000
1765.529938 -2144.916102 1200.000000
1763.613674 -2145.488757 1200.000000
1761.697410 -2146.061412 1200.000000
1759.781147 -2146.634067 1200.000000
1757.864883 -2147.206723 1200.000000
1755.948620 -2147.779378 1200.000000
1754.032356 -2148.352033 1200.000000
1752.116093 -2148.924688 1200.000000
1750.199829 -2149.497343 1200.000000
1748.283565 -2150.069998 1200.000000
1746.367302 -2150.642654 1200.000000
1744.451038 -2151.215309 1200.000000
1742.534775 -2151.787964 1200.000000
1740.618511 -2152.360619 1200.000000
1738.702248 -2152.933274 1200.000000
1736.785984 -2153.505929 1200.000000
1734.869720 -2154.078585 1200.000000
1732.953457 -2154.651240 1200.000000
1731.037193 -2155.223895 1200.000000
1729.120930 -2155.796550 1200.000000
1727.204666 -2156.369205 1200.000000
1725.288403 -2156.941860 1200.000000
1723.372139 -2157.514516 1200.000000
1721.455875 -2158.087171 1200.000000
1719.539612 -2158.659826 1200.000000
1717.623348 -2159.232481 1200.000000
1715.707085 -2159.805136 1200.000000
1713.790821 -2160.377791 1200.000000
1711.874558 -2160.950447 1200.000000
1709.958294 -2161.523102 1200.000000
1708.042031 -2162.095757 1200.000000
1706.125767 -2162.668412 1200.000000
1704.209503 -2163.241067 1200.000000
1702.293240 -2163.813722 1200.000000
1700.376976 -2164.386378 1200.000000
1698.460713 -2164.959033 1200.000000
1696.544449 -2165.531688 1200.000000
1694.628186 -2166.104343 1200.000000
1692.711922 -2166.676998 1200.000000
1690.795658 -2167.249653 1200.000000
1688.879395 -2167.822309 1200.000000
1686.963131 -2168.394964 1200.000000
1685.046868 -2168.967619 1200.000000
1683.130604 -2169.540274 1200.000000
1681.214341 -2170.112929 1200.000000
1679.298077 -2170.685584 1200.000000
1677.381813 -2171.258240 1200.000000
1675.465550 -2171.830895 1200.000000
1673.549286 -2172.403550 1200.000000
1671.633023 -2172.976205 1200.000000
1669.716759 -2173.548860 1200.000000
1667.800496 -2174.121515 1200.000000
1665.884232 -2174.694171 1200.000000
1663.967968 -2175.266826 1200.000000
1662.051705 -2175.839481 1200.000000
1660.135441 -2176.412136 1200.000000
1658.219178 -2176.984791 1200.000000
1656.302914 -2177.557446 1200.000000
1654.386651 -2178.130102 1200.000000
1652.470387 -2178.702757 1200.000000
1650.554123 -2179.275412 1200.000000
1648.637860 -2179.848067 1200.000000
1646.721596 -2180.420722 1200.000000
1644.805333 -2180.993377 1200.000000
1642.889069 -2181.566033 1200.000000
1640.972806 -2182.138688 1200.000000
1639.056542 -2182.711343 1200.000000
1637.140279 -2183.283998 1200.000000
1635.224015 -2183.856653 1200.000000
1633.307751 -2184.429308 1200.000000
1631.391488 -2185.001964 1200.000000
1629.475224 -2185.574619 1200.000000
1627.558961 -2186.147274 1200.000000
1625.642697 -2186.719929 1200.000000
1623.726434 -2187.292584 1200.000000
1621.810170 -2187.865239 1200.000000
1619.893906 -2188.437895 1200.000000
1617.977643 -2189.010550 1200.000000
1616.061379 -2189.583205 1200.000000
1614.145116 -2190.155860 1200.000000
1612.228852 -2190.728515 1200.000000
1610.312589 -2191.301170 1200.000000
1608.396325 -2191.873826 1200.000000
1606.480061 -2192.446481 1200.000000
1604.563798 -2193.019136 1200.000000
1602.647534 -2193.591791 1200.000000
1600.731271 -2194.164446 1200.000000
1598.815007 -2194.737101 1200.000000
1596.898744 -2195.309757 1200.000000
1594.982480 -2195.882412 1200.000000
1593.066216 -2196.455067 1200.000000
1591.149953 -2197.027722 1200.000000
1589.233689 -2197.600377 1200.000000
1587.317426 -2198.173032 1200.000000
1585.401162 -2198.745688 1200.000000
1583.484899 -2199.318343 1200.000000
1581.568635 -2199.890998 1200.000000
1579.652371 -2200.463653 1200.000000
1577.736108 -2201.036308 1200.000000
1575.819844 -2201.608963 1200.000000
1573.903581 -2202.181619 1200.000000
1571.987317 -2202.754274 1200.000000
1570.071054 -2203.326929 1200.000000
1568.154790 -2203.899584 1200.000000
1566.238527 -2204.472239 1200.000000
1564.322263 -2205.044894 1200.000000
1562.405999 -2205.617550 1200.000000
1560.489736 -2206.190205 1200.000000
1558.573472 -2206.762860 1200.000000
1556.657209 -2207.335515 1200.000000
1554.740945 -2207.908170 1200.000000
1552.824682 -2208.480825 1200.000000
1550.908418 -2209.053481 1200.000000
1548.992154 -2209.626136 1200.000000
1547.075891 -2210.198791 1200.000000
1545.159627 -2210.771446 1200.000000
1543.243364 -2211.344101 1200.000000
1541.327100 -2211.916756 1200.000000
1539.410837 -2212.489412 1200.000000
1537.494573 -2213.062067 1200.000000
1535.578309 -2213.634722 1200.000000
1533.662046 -2214.207377 1200.000000
1531.745782 -2214.780032 1200.000000
1529.829519 -2215.352687 1200.000000
1527.913255 -2215.925343 1200.000000
1525.996992 -2216.497998 1200.000000
1524.080728 -2217.070653 1200.000000
1522.164464 -2217.643308 1200.000000
1520.248201 -2218.215963 1200.000000
1518.331937 -2218.788618 1200.000000
1516.415674 -2219.361274 1200.000000
1514.499410 -2219.933929 1200.000000
1512.583147 -2220.506584 1200.000000
1510.666883 -2221.079239 1200.000000
1508.750619 -2221.651894 1200.000000
1506.834356 -2222.224549 1200.000000
1504.918092 -2222.797205 1200.000000
1503.001829 -2223.369860 1200.000000
1501.085565 -2223.942515 1200.000000
1499.169302 -2224.515170 1200.000000
1497.253038 -2225.087825 1200.000000
1495.336775 -2225.660480 1200.000000
1493.420511 -2226.233136 1200.000000
1491.504247 -2226.805791 1200.000000
1489.587984 -2227.378446 1200.000000
1487.671720 -2227.951101 1200.000000
1485.755457 -2228.523756 1200.000000
1483.839193 -2229.096411 1200.000000
1481.922930 -2229.669067 1200.000000
1480.006666 -2230.241722 1200.000000
1478.090402 -2230.814377 1200.000000
1476.174139 -2231.387032 1200.000000
1474.257875 -2231.959687 1200.000000
1472.341612 -2232.532342 1200.000000
1470.425348 -2233.104998 1200.000000
1468.509085 -2233.677653 1200.000000
1466.592821 -2234.250308 1200.000000
1464.676557 -2234.822963 1200.000000
1462.760294 -2235.395618 1200.000000
1460.844030 -2235.968273 1200.000000
1458.927767 -2236.540929 1200.000000
1457.011503 -2237.113584 1200.000000
1455.095240 -2237.686239 1200.000000
1453.178976 -2238.258894 1200.000000
1451.262712 -2238.831549 1200.000000
1449.346449 -2239.404204 1200.000000
1447.430185 -2239.976860 1200.000000
1445.513922 -2240.549515 1200.000000
1443.597658 -2241.122170 1200.000000
1441.681395 -2241.694825 1200.000000
1439.765131 -2242.267480 1200.000000
1437.848867 -2242.840135 1200.000000
1435.932604 -2243.412791 1200.000000
1434.016340 -2243.985446 1200.000000
1432.100077 -2244.558101 1200.000000
1430.183813 -2245.130756 1200.000000
1428.267550 -2245.703411 1200.000000
1426.351286 -2246.276066 1200.000000
1424.435023 -2246.848722 1200.000000
1422.518759 -2247.421377 1200.000000
1420.602495 -2247.994032 1200.000000
1418.686232 -2248.566687 1200.000000
1416.769968 -2249.139342 1200.000000
1414.853705 -2249.711997 1200.000000
1412.937441 -2250.284653 1200.000000
1411.021178 -2250.857308 1200.000000
1409.104914 -2251.429963 1200.000000
1407.188650 -2252.002618 1200.000000
1405.272387 -2252.575273 1200.000000
1403.356123 -2253.147928 1200.000000
1401.439860 -2253.720584 1200.000000
1399.523596 -2254.293239 1200.000000
1397.607333 -2254.865894 1200.000000
1395.691069 -2255.438549 1200.000000
1393.774805 -2256.011204 1200.000000
1391.858542 -2256.583859 1200.000000
1389.942278 -2257.156515 1200.000000
1388.026015 -2257.729170 1200.000000
1386.109751 -2258.301825 1200.000000
1384.193488 -2258.874480 1200.000000
1382.277224 -2259.447135 1200.000000
1380.360960 -2260.019790 1200.000000
1378.444697 -2260.592446 1200.000000
1376.528433 -2261.165101 1200.000000
1374.612170 -2261.737756 1200.000000
1372.695906 -2262.310411 1200.000000
1370.779643 -2262.883066 1200.000000
1368.863379 -2263.455721 1200.000000
1366.947116 -2264.028377 1200.000000
1365.030852 -2264.601032 1200.000000
1363.114588 -2265.173687 1200.000000
1361.198325 -2265.746342 1200.000000
1359.282061 -2266.318997 1200.000000
1357.365798 -2266.891652 1200.000000
1355.449534 -2267.464308 1200.000000
1353.533271 -2268.036963 1200.000000
1351.617007 -2268.609618 1200.000000
1349.700743 -2269.182273 1200.000000
1347.784480 -2269.754928 1200.000000
1345.868216 -2270.327583 1200.000000
1343.951953 -2270.900239 1200.000000
1342.035689 -2271.472894 1200.000000
1340.119426 -2272.045549 1200.000000
1338.203162 -2272.618204 1200.000000
1336.286898 -2273.190859 1200.000000
1334.370635 -2273.763514 1200.000000
1332.454371 -2274.336170 1200.000000
1330.538108 -2274.908825 1200.000000
1328.621844 -2275.481480 1200.000000
1326.705581 -2276.054135 1200.000000
1324.789317 -2276.626790 1200.000000
1322.873053 -2277.199445 1200.000000
1320.956790 -2277.772101 1200.000000
1319.040526 -2278.344756 1200.000000
1317.124263 -2278.917411 1200.000000
1315.207999 -2279.490066 1200.000000
1313.291736 -2280.062721 1200.000000
1311.375472 -2280.635376 1200.000000
1309.459208 -2281.208032 1200.000000
1307.542945 -2281.780687 1200.000000
1305.626681 -2282.353342 1200.000000
1303.710418 -2282.925997 1200.000000
1301.794154 -2283.498652 1200.000000
1299.877891 -2284.071307 1200.000000
1297.961627 -2284.643963 1200.000000
1296.045364 -2285.216618 1200.000000
1294.129100 -2285.789273 1200.000000
1292.212836 -2286.361928 1200.000000
1290.296573 -2286.934583 1200.000000
1288.380309 -2287.507238 1200.000000
1286.464046 -2288.079894 1200.000000
1284.547782 -2288.652549 1200.000000
1282.631519 -2289.225204 1200.000000
1280.715255 -2289.797859 1200.000000
1278.798991 -2290.370514 1200.000000
1276.882728 -2290.943169 1200.000000
1274.966464 -2291.515825 1200.000000
1273.050201 -2292.088480 1200.000000
1271.133937 -2292.661135 1200.000000
1269.217674 -2293.233790 1200.000000
1267.301410 -2293.806445 1200.000000
1265.385146 -2294.379100 1200.000000
1263.468883 -2294.951756 1200.000000
1261.552619 -2295.524411 1200.000000
1259.636356 -2296.097066 1200.000000
1257.720092 -2296.669721 1200.000000
1255.803829 -2297.242376 1200.000000
1253.887565 -2297.815031 1200.000000
1251.971301 -2298.387687 1200.000000
1250.055038 -2298.960342 1200.000000
1248.138774 -2299.532997 1200.000000
1246.222511 -2300.105652 1200.000000
1244.306247 -2300.678307 1200.000000
1242.389984 -2301.250962 1200.000000
1240.473720 -2301.823618 1200.000000
1238.557456 -2302.396273 1200.000000
1236.641193 -2302.968928 1200.000000
1234.724929 -2303.541583 1200.000000
1232.808666 -2304.114238 1200.000000
1230.892402 -2304.686893 1200.000000
1228.976139 -2305.259549 1200.000000
1227.059875 -2305.832204 1200.000000
1225.143612 -2306.404859 1200.000000
1223.227348 -2306.977514 1200.000000
1221.311084 -2307.550169 1200.000000
1219.394821 -2308.122824 1200.000000
1217.478557 -2308.695480 1200.000000
1215.562294 -2309.268135 1200.000000
1213.646030 -2309.840790 1200.000000
1211.729767 -2310.413445 1200.000000
1209.813503 -2310.986100 1200.000000
1207.897239 -2311.558755 1200.000000
1205.980976 -2312.131411 1200.000000
1204.064712 -2312.704066 1200.000000
1202.148449 -2313.276721 1200.000000
1200.232185 -2313.849376 1200.000000
1198.315922 -2314.422031 1200.000000
1196.399658 -2314.994686 1200.000000
1194.483394 -2315.567342 1200.000000
1192.567131 -2316.139997 1200.000000
1190.650867 -2316.712652 1200.000000
1188.734604 -2317.285307 1200.000000
1186.818340 -2317.857962 1200.000000
1184.902077 -2318.430617 1200.000000
1182.985813 -2319.003273 1200.000000
1181.069549 -2319.575928 1200.000000
1179.153286 -2320.148583 1200.000000
1177.237022 -2320.721238 1200.000000
1175.320759 -2321.293893 1200.000000
1173.404495 -2321.866548 1200.000000
1171.488232 -2322.439204 1200.000000
1169.571968 -2323.011859 1200.000000
1167.655704 -2323.584514 1200.000000
1165.739441 -2324.157169 1200.000000
1163.823177 -2324.729824 1200.000000
1161.906914 -2325.302479 1200.000000
1159.990650 -2325.875135 1200.000000
1158.074387 -2326.447790 1200.000000
1156.158123 -2327.020445 1200.000000
1154.241860 -2327.593100 1200.000000
1152.325596 -2328.165755 1200.000000
1150.409332 -2328.738410 1200.000000
1148.493069 -2329.311066 1200.000000
1146.576805 -2329.883721 1200.000000
1144.660542 -2330.456376 1200.000000
1142.744278 -2331.029031 1200.000000
1140.828015 -2331.601686 1200.000000
1138.911751 -2332.174341 1200.000000
1136.995487 -2332.746997 1200.000000
1135.079224 -2333.319652 1200.000000
1133.162960 -2333.892307 1200.000000
1131.246697 -2334.464962 1200.000000
1129.330433 -2335.037617 1200.000000
1127.414170 -2335.610272 1200.000000
1125.497906 -2336.182928 1200.000000
1123.581642 -2336.755583 1200.000000
1121.665379 -2337.328238 1200.000000
1119.749115 -2337.900893 1200.000000
1117.832852 -2338.473548 1200.000000
1115.916588 -2339.046203 1200.000000
1114.000325 -2339.618859 1200.000000
1112.084061 -2340.191514 1200.000000
1110.167797 -2340.764169 1200.000000
1108.251534 -2341.336824 1200.000000
1106.335270 -2341.909479 1200.000000
1104.419007 -2342.482134 1200.000000
1102.502743 -2343.054790 1200.000000
1100.586480 -2343.627445 1200.000000
1098.670216 -2344.200100 1200.000000
1096.753952 -2344.772755 1200.000000
1094.837689 -2345.345410 1200.000000
1092.921425 -2345.918065 1200.000000
1091.005162 -2346.490721 1200.000000
1089.088898 -2347.063376 1200.000000
1087.172635 -2347.636031 1200.000000
1085.256371 -2348.208686 1200.000000
1083.340108 -2348.781341 1200.000000
1081.423844 -2349.353996 1200.000000
1079.507580 -2349.926652 1200.000000
1077.591317 -2350.499307 1200.000000
1075.675053 -2351.071962 1200.000000
1073.758790 -2351.644617 1200.000000
1071.842526 -2352.217272 1200.000000
1069.926263 -2352.789927 1200.000000
1068.009999 -2353.362583 1200.000000
1066.093735 -2353.935238 1200.000000
1064.177472 -2354.507893 1200.000000
1062.261208 -2355.080548 1200.000000
1060.344945 -2355.653203 1200.000000
1058.428681 -2356.225858 1200.000000
1056.512418 -2356.798514 1200.000000
1054.596154 -2357.371169 1200.000000
1052.679890 -2357.943824 1200.000000
1050.763627 -2358.516479 1200.000000
1048.847363 -2359.089134 1200.000000
1046.931100 -2359.661789 1200.000000
1045.014836 -2360.234445 1200.000000
1043.098573 -2360.807100 1200.000000
1041.182309 -2361.379755 1200.000000
1039.266045 -2361.952410 1200.000000
1037.349782 -2362.525065 1200.000000
1035.433518 -2363.097720 1200.000000
1033.517255 -2363.670376 1200.000000
1031.600991 -2364.243031 1200.000000
1029.684728 -2364.815686 1200.000000
1027.768464 -2365.388341 1200.000000
1025.852200 -2365.960996 1200.000000
1023.935937 -2366.533651 1200.000000
1022.019673 -2367.106307 1200.000000
1020.103410 -2367.678962 1200.000000
1018.187146 -2368.251617 1200.000000
1016.270883 -2368.824272 1200.000000
1014.354619 -2369.396927 1200.000000
1012.438356 -2369.969582 1200.000000
1010.522092 -2370.542238 1200.000000
1008.605828 -2371.114893 1200.000000
1006.689565 -2371.687548 1200.000000
1004.773301 -2372.260203 1200.000000
1002.857038 -2372.832858 1200.000000
1000.940774 -2373.405513 1200.000000
999.024511 -2373.978169 1200.000000
997.108247 -2374.550824 1200.000000
995.191983 -2375.123479 1200.000000
993.275720 -2375.696134 1200.000000
991.359456 -2376.268789 1200.000000
989.443193 -2376.841444 1200.000000
987.526929 -2377.414100 1200.000000
985.610666 -2377.986755 1200.000000
983.694402 -2378.559410 1200.000000
981.778138 -2379.132065 1200.000000
979.861875 -2379.704720 1200.000000
977.945611 -2380.277375 1200.000000
976.029348 -2380.850031 1200.000000
974.113084 -2381.422686 1200.000000
972.196821 -2381.995341 1200.000000
970.280557 -2382.567996 1200.000000
968.364293 -2383.140651 1200.000000
966.448030 -2383.713306 1200.000000
964.531766 -2384.285962 1200.000000
962.615503 -2384.858617 1200.000000
960.699239 -2385.431272 1200.000000
958.782976 -2386.003927 1200.000000
956.866712 -2386.576582 1200.000000
954.950448 -2387.149237 1200.000000
953.034185 -2387.721893 1200.000000
951.117921 -2388.294548 1200.000000
949.201658 -2388.867203 1200.000000
947.285394 -2389.439858 1200.000000
945.369131 -2390.012513 1200.000000
943.452867 -2390.585168 1200.000000
941.536604 -2391.157824 1200.000000
939.620340 -2391.730479 1200.000000
937.704076 -2392.303134 1200.000000
935.787813 -2392.875789 1200.000000
933.871549 -2393.448444 1200.000000
931.955286 -2394.021099 1200.000000
930.039022 -2394.593755 1200.000000
928.122759 -2395.166410 1200.000000
926.206495 -2395.739065 1200.000000
924.290231 -2396.311720 1200.000000
922.373968 -2396.884375 1200.000000
920.457704 -2397.457030 1200.000000
918.541441 -2398.029686 1200.000000
916.625177 -2398.602341 1200.000000
914.708914 -2399.174996 1200.000000
912.792650 -2399.747651 1200.000000
910.876386 -2400.320306 1200.000000
908.960123 -2400.892961 1200.000000
907.043859 -2401.465617 1200.000000
905.127596 -2402.038272 1200.000000
903.211332 -2402.610927 1200.000000
901.295069 -2403.183582 1200.000000
899.378805 -2403.756237 1200.000000
897.462541 -2404.328892 1200.000000
895.546278 -2404.901548 1200.000000
893.630014 -2405.474203 1200.000000
891.713751 -2406.046858 1200.000000
889.797487 -2406.619513 1200.000000
887.881224 -2407.192168 1200.000000
885.964960 -2407.764823 1200.000000
884.048696 -2408.337479 1200.000000
882.132433 -2408.910134 1200.000000
880.216169 -2409.482789 1200.000000
878.299906 -2410.055444 1200.000000
876.383642 -2410.628099 1200.000000
874.467379 -2411.200754 1200.000000
872.551115 -2411.773410 1200.000000
870.634852 -2412.346065 1200.000000
868.718588 -2412.918720 1200.000000
866.802324 -2413.491375 1200.000000
864.886061 -2414.064030 1200.000000
862.969797 -2414.636685 1200.000000
861.053534 -2415.209341 1200.000000
859.137270 -2415.781996 1200.000000
857.221007 -2416.354651 1200.000000
855.304743 -2416.927306 1200.000000
853.388479 -2417.499961 1200.000000
851.472216 -2418.072616 1200.000000
849.555952 -2418.645272 1200.000000
847.639689 -2419.217927 1200.000000
845.723425 -2419.790582 1200.000000
843.807162 -2420.363237 1200.000000
841.890898 -2420.935892 1200.000000
839.974634 -2421.508547 1200.000000
838.058371 -2422.081203 1200.000000
836.142107 -2422.653858 1200.000000
834.225844 -2423.226513 1200.000000
832.309580 -2423.799168 1200.000000
830.393317 -2424.371823 1200.000000
828.477053 -2424.944478 1200.000000
826.560789 -2425.517134 1200.000000
824.644526 -2426.089789 1200.000000
822.728262 -2426.662444 1200.000000
820.811999 -2427.235099 1200.000000
818.895735 -2427.807754 1200.000000
816.979472 -2428.380409 1200.000000
815.063208 -2428.953065 1200.000000
813.146944 -2429.525720 1200.000000
811.230681 -2430.098375 1200.000000
809.314417 -2430.671030 1200.000000
807.398154 -2431.243685 1200.000000
805.481890 -2431.816340 1200.000000
803.565627 -2432.388996 1200.000000
801.649363 -2432.961651 1200.000000
799.733100 -2433.534306 1200.000000
797.816836 -2434.106961 1200.000000
795.900572 -2434.679616 1200.000000
793.984309 -2435.252271 1200.000000
792.068045 -2435.824927 1200.000000
790.151782 -2436.397582 1200.000000
788.235518 -2436.970237 1200.000000
786.319255 -2437.542892 1200.000000
784.402991 -2438.115547 1200.000000
782.486727 -2438.688202 1200.000000
780.570464 -2439.260858 1200.000000
778.654200 -2439.833513 1200.000000
776.737937 -2440.406168 1200.000000
774.821673 -2440.978823 1200.000000
772.905410 -2441.551478 1200.000000
770.989146 -2442.124133 1200.000000
769.072882 -2442.696789 1200.000000
767.156619 -2443.269444 1200.000000
765.240355 -2443.842099 1200.000000
763.324092 -2444.414754 1200.000000
761.407828 -2444.987409 1200.000000
759.491565 -2445.560064 1200.000000
757.575301 -2446.132720 1200.000000
755.659037 -2446.705375 1200.000000
753.742774 -2447.278030 1200.000000
751.826510 -2447.850685 1200.000000
749.910247 -2448.423340 1200.000000
747.993983 -2448.995995 1200.000000
746.077720 -2449.568651 1200.000000
744.161456 -2450.141306 1200.000000
742.245193 -2450.713961 1200.000000
740.328929 -2451.286616 1200.000000
738.412665 -2451.859271 1200.000000
736.496402 -2452.431926 1200.000000
734.580138 -2453.004582 1200.000000
732.663875 -2453.577237 1200.000000
730.747611 -2454.149892 1200.000000
728.831348 -2454.722547 1200.000000
726.915084 -2455.295202 1200.000000
724.998820 -2455.867857 1200.000000
723.082557 -2456.440513 1200.000000
721.166293 -2457.013168 1200.000000
719.250030 -2457.585823 1200.000000
717.333766 -2458.158478 1200.000000
715.417503 -2458.731133 1200.000000
713.501239 -2459.303788 1200.000000
711.584975 -2459.876444 1200.000000
709.668712 -2460.449099 1200.000000
707.752448 -2461.021754 1200.000000
705.836185 -2461.594409 1200.000000
703.919921 -2462.167064 1200.000000
702.003658 -2462.739719 1200.000000
700.087394 -2463.312375 1200.000000
698.171130 -2463.885030 1200.000000
696.254867 -2464.457685 1200.000000
694.338603 -2465.030340 1200.000000
692.422340 -2465.602995 1200.000000
690.506076 -2466.175650 1200.000000
688.589813 -2466.748306 1200.000000
686.673549 -2467.320961 1200.000000
684.757285 -2467.893616 1200.000000
682.841022 -2468.466271 1200.000000
680.924758 -2469.038926 1200.000000
679.008495 -2469.611581 1200.000000
677.092231 -2470.184237 1200.000000
675.175968 -2470.756892 1200.000000
673.259704 -2471.329547 1200.000000
671.343441 -2471.902202 1200.000000
669.427177 -2472.474857 1200.000000
667.510913 -2473.047512 1200.000000
665.594650 -2473.620168 1200.000000
663.678386 -2474.192823 1200.000000
661.762123 -2474.765478 1200.000000
659.845859 -2475.338133 1200.000000
657.929596 -2475.910788 1200.000000
656.013332 -2476.483443 1200.000000
654.097068 -2477.056099 1200.000000
652.180805 -2477.628754 1200.000000
650.264541 -2478.201409 1200.000000
648.348278 -2478.774064 1200.000000
646.432014 -2479.346719 1200.000000
644.515751 -2479.919374 1200.000000
642.599487 -2480.492030 1200.000000
640.683223 -2481.064685 1200.000000
638.766960 -2481.637340 1200.000000
636.850696 -2482.209995 1200.000000
634.934433 -2482.782650 1200.000000
633.018169 -2483.355305 1200.000000
631.101906 -2483.927961 1200.000000
629.185642 -2484.500616 1200.000000
627.269378 -2485.073271 1200.000000
625.353115 -2485.645926 1200.000000
623.436851 -2486.218581 1200.000000
621.520588 -2486.791236 1200.000000
619.604324 -2487.363892 1200.000000
617.688061 -2487.936547 1200.000000
615.771797 -2488.509202 1200.000000
613.855533 -2489.081857 1200.000000
611.939270 -2489.654512 1200.000000
610.023006 -2490.227167 1200.000000
608.106743 -2490.799823 1200.000000
606.190479 -2491.372478 1200.000000
604.274216 -2491.945133 1200.000000
602.357952 -2492.517788 1200.000000
600.441689 -2493.090443 1200.000000
598.525425 -2493.663098 1200.000000
596.609161 -2494.235754 1200.000000
594.692898 -2494.808409 1200.000000
592.776634 -2495.381064 1200.000000
590.860371 -2495.953719 1200.000000
588.944107 -2496.526374 1200.000000
587.027844 -2497.099029 1200.000000
585.111580 -2497.671685 1200.000000
583.195316 -2498.244340 1200.000000
581.279053 -2498.816995 1200.000000
579.362789 -2499.389650 1200.000000
577.446526 -2499.962305 1200.000000
575.530262 -2500.534960 1200.000000
573.613999 -2501.107616 1200.000000
571.697735 -2501.680271 1200.000000
569.781471 -2502.252926 1200.000000
567.865208 -2502.825581 1200.000000
565.948944 -2503.398236 1200.000000
564.032681 -2503.970891 1200.000000
562.116417 -2504.543547 1200.000000
560.200154 -2505.116202 1200.000000
558.283890 -2505.688857 1200.000000
556.367626 -2506.261512 1200.000000
554.451363 -2506.834167 1200.000000
552.535099 -2507.406822 1200.000000
550.618836 -2507.979478 1200.000000
548.702572 -2508.552133 1200.000000
546.786309 -2509.124788 1200.000000
544.870045 -2509.697443 1200.000000
542.953781 -2510.270098 1200.000000
541.037518 -2510.842753 1200.000000
539.121254 -2511.415409 1200.000000
537.204991 -2511.988064 1200.000000
535.288727 -2512.560719 1200.000000
533.372464 -2513.133374 1200.000000
531.456200 -2513.706029 1200.000000
529.539937 -2514.278684 1200.000000
527.623673 -2514.851340 1200.000000
525.707409 -2515.423995 1200.000000
523.791146 -2515.996650 1200.000000
521.874882 -2516.569305 1200.000000
519.958619 -2517.141960 1200.000000
518.042355 -2517.714615 1200.000000
516.126092 -2518.287271 1200.000000
514.209828 -2518.859926 1200.000000
512.293564 -2519.432581 1200.000000
510.377301 -2520.005236 1200.000000
508.461037 -2520.577891 1200.000000
506.544774 -2521.150546 1200.000000
504.628510 -2521.723202 1200.000000
502.712247 -2522.295857 1200.000000
500.795983 -2522.868512 1200.000000
498.879719 -2523.441167 1200.000000
496.963456 -2524.013822 1200.000000
495.047192 -2524.586477 1200.000000
493.130929 -2525.159133 1200.000000
491.214665 -2525.731788 1200.000000
489.298402 -2526.304443 1200.000000
487.382138 -2526.877098 1200.000000
485.465874 -2527.449753 1200.000000
483.549611 -2528.022408 1200.000000
481.633347 -2528.595064 1200.000000
479.717084 -2529.167719 1200.000000
477.800820 -2529.740374 1200.000000
475.884557 -2530.313029 1200.000000
473.968293 -2530.885684 1200.000000
472.052029 -2531.458339 1200.000000
470.135766 -2532.030995 1200.000000
468.219502 -2532.603650 1200.000000
466.303239 -2533.176305 1200.000000
464.386975 -2533.748960 1200.000000
462.470712 -2534.321615 1200.000000
460.554448 -2534.894270 1200.000000
458.638185 -2535.466926 1200.000000
456.721921 -2536.039581 1200.000000
454.805657 -2536.612236 1200.000000
452.889394 -2537.184891 1200.000000
450.973130 -2537.757546 1200.000000
449.056867 -2538.330201 1200.000000
447.140603 -2538.902857 1200.000000
445.224340 -2539.475512 1200.000000
443.308076 -2540.048167 1200.000000
441.391812 -2540.620822 1200.000000
439.475549 -2541.193477 1200.000000
437.559285 -2541.766132 1200.000000
435.643022 -2542.338788 1200.000000
433.726758 -2542.911443 1200.000000
431.810495 -2543.484098 1200.000000
429.894231 -2544.056753 1200.000000
427.977967 -2544.629408 1200.000000
426.061704 -2545.202063 1200.000000
424.145440 -2545.774719 1200.000000
422.229177 -2546.347374 1200.000000
420.312913 -2546.920029 1200.000000
418.396650 -2547.492684 1200.000000
416.480386 -2548.065339 1200.000000
414.564122 -2548.637994 1200.000000
412.647859 -2549.210650 1200.000000
410.731595 -2549.783305 1200.000000
408.815332 -2550.355960 1200.000000
406.899068 -2550.928615 1200.000000
404.982805 -2551.501270 1200.000000
403.066541 -2552.073925 1200.000000
401.150277 -2552.646581 1200.000000
399.234014 -2553.219236 1200.000000
397.317750 -2553.791891 1200.000000
395.401487 -2554.364546 1200.000000
393.485223 -2554.937201 1200.000000
391.568960 -2555.509856 1200.000000
389.652696 -2556.082512 1200.000000
387.736433 -2556.655167 1200.000000
385.820169 -2557.227822 1200.000000
383.903905 -2557.800477 1200.000000
381.987642 -2558.373132 1200.000000
380.071378 -2558.945787 1200.000000
378.155115 -2559.518443 1200.000000
376.238851 -2560.091098 1200.000000
374.322588 -2560.663753 1200.000000
372.406324 -2561.236408 1200.000000
370.490060 -2561.809063 1200.000000
368.573797 -2562.381718 1200.000000
366.657533 -2562.954374 1200.000000
364.741270 -2563.527029 1200.000000
362.825006 -2564.099684 1200.000000
360.908743 -2564.672339 1200.000000
358.992479 -2565.244994 1200.000000
357.076215 -2565.817649 1200.000000
355.159952 -2566.390305 1200.000000
353.243688 -2566.962960 1200.000000
351.327425 -2567.535615 1200.000000
349.411161 -2568.108270 1200.000000
347.494898 -2568.680925 1200.000000
345.578634 -2569.253580 1200.000000
343.662370 -2569.826236 1200.000000
341.746107 -2570.398891 1200.000000
339.829843 -2570.971546 1200.000000
337.913580 -2571.544201 1200.000000
335.997316 -2572.116856 1200.000000
334.081053 -2572.689511 1200.000000
332.164789 -2573.262167 1200.000000
330.248525 -2573.834822 1200.000000
328.332262 -2574.407477 1200.000000
326.415998 -2574.980132 1200.000000
324.499735 -2575.552787 1200.000000
322.583471 -2576.125442 1200.000000
320.667208 -2576.698098 1200.000000
318.750944 -2577.270753 1200.000000
316.834681 -2577.843408 1200.000000
314.918417 -2578.416063 1200.000000
313.002153 -2578.988718 1200.000000
311.085890 -2579.561373 1200.000000
309.169626 -2580.134029 1200.000000
307.253363 -2580.706684 1200.000000
305.337099 -2581.279339 1200.000000
303.420836 -2581.851994 1200.000000
301.504572 -2582.424649 1200.000000
299.588308 -2582.997304 1200.000000
297.672045 -2583.569960 1200.000000
295.755781 -2584.142615 1200.000000
293.839518 -2584.715270 1200.000000
291.923254 -2585.287925 1200.000000
290.006991 -2585.860580 1200.000000
288.090727 -2586.433235 1200.000000
286.174463 -2587.005891 1200.000000
284.258200 -2587.578546 1200.000000
282.341936 -2588.151201 1200.000000
280.425673 -2588.723856 1200.000000
278.509409 -2589.296511 1200.000000
276.593146 -2589.869166 1200.000000
274.676882 -2590.441822 1200.000000
272.760618 -2591.014477 1200.000000
270.844355 -2591.587132 1200.000000
268.928091 -2592.159787 1200.000000
267.011828 -2592.732442 1200.000000
265.095564 -2593.305097 1200.000000
263.179301 -2593.877753 1200.000000
261.263037 -2594.450408 1200.000000
259.346773 -2595.023063 1200.000000
257.430510 -2595.595718 1200.000000
255.514246 -2596.168373 1200.000000
253.597983 -2596.741028 1200.000000
251.681719 -2597.313684 1200.000000
249.765456 -2597.886339 1200.000000
247.849192 -2598.458994 1200.000000
245.932929 -2599.031649 1200.000000
244.016665 -2599.604304 1200.000000
242.100401 -2600.176959 1200.000000
240.184138 -2600.749615 1200.000000
238.267874 -2601.322270 1200.000000
236.351611 -2601.894925 1200.000000
234.435347 -2602.467580 1200.000000
232.519084 -2603.040235 1200.000000
230.602820 -2603.612890 1200.000000
228.686556 -2604.185546 1200.000000
226.770293 -2604.758201 1200.000000
224.854029 -2605.330856 1200.000000
222.937766 -2605.903511 1200.000000
221.021502 -2606.476166 1200.000000
219.105239 -2607.048821 1200.000000
217.188975 -2607.621477 1200.000000
215.272711 -2608.194132 1200.000000
213.356448 -2608.766787 1200.000000
211.440184 -2609.339442 1200.000000
209.523921 -2609.912097 1200.000000
207.607657 -2610.484752 1200.000000
205.691394 -2611.057408 1200.000000
203.775130 -2611.630063 1200.000000
201.858866 -2612.202718 1200.000000
199.942603 -2612.775373 1200.000000
198.026339 -2613.348028 1200.000000
196.110076 -2613.920683 1200.000000
194.193812 -2614.493339 1200.000000
192.277549 -2615.065994 1200.000000
190.361285 -2615.638649 1200.000000
188.445021 -2616.211304 1200.000000
186.528758 -2616.783959 1200.000000
184.612494 -2617.356614 1200.000000
182.696231 -2617.929270 1200.000000
180.779967 -2618.501925 1200.000000
178.863704 -2619.074580 1200.000000
176.947440 -2619.647235 1200.000000
175.031177 -2620.219890 1200.000000
173.114913 -2620.792545 1200.000000
171.198649 -2621.365201 1200.000000
169.282386 -2621.937856 1200.000000
167.366122 -2622.510511 1200.000000
165.449859 -2623.083166 1200.000000
163.533595 -2623.655821 1200.000000
161.617332 -2624.228476 1200.000000
159.701068 -2624.801132 1200.000000
157.784804 -2625.373787 1200.000000
155.868541 -2625.946442 1200.000000
153.952277 -2626.519097 1200.000000
152.036014 -2627.091752 1200.000000
150.119750 -2627.664407 1200.000000
148.203487 -2628.237063 1200.000000
146.287223 -2628.809718 1200.000000
144.370959 -2629.382373 1200.000000
142.454696 -2629.955028 1200.000000
140.538432 -2630.527683 1200.000000
138.622169 -2631.100338 1200.000000
136.705905 -2631.672994 1200.000000
134.789642 -2632.245649 1200.000000
132.873378 -2632.818304 1200.000000
130.957114 -2633.390959 1200.000000
129.040851 -2633.963614 1200.000000
127.124587 -2634.536269 1200.000000
125.208324 -2635.108925 1200.000000
123.292060 -2635.681580 1200.000000
121.375797 -2636.254235 1200.000000
119.459533 -2636.826890 1200.000000
117.543270 -2637.399545 1200.000000
115.627006 -2637.972200 1200.000000
113.710742 -2638.544856 1200.000000
111.794479 -2639.117511 1200.000000
109.878215 -2639.690166 1200.000000
107.961952 -2640.262821 1200.000000
106.045688 -2640.835476 1200.000000
104.129425 -2641.408131 1200.000000
102.213161 -2641.980787 1200.000000
100.296897 -2642.553442 1200.000000
98.380634 -2643.126097 1200.000000
96.464370 -2643.698752 1200.000000
94.548107 -2644.271407 1200.000000
92.631843 -2644.844062 1200.000000
90.715580 -2645.416718 1200.000000
88.799316 -2645.989373 1200.000000
86.883052 -2646.562028 1200.000000
84.966789 -2647.134683 1200.000000
83.050525 -2647.707338 1200.000000
81.134262 -2648.279993 1200.000000
79.217998 -2648.852649 1200.000000
77.301735 -2649.425304 1200.000000
75.385471 -2649.997959 1200.000000
73.469207 -2650.570614 1200.000000
71.552944 -2651.143269 1200.000000
69.636680 -2651.715924 1200.000000
67.720417 -2652.288580 1200.000000
65.804153 -2652.861235 1200.000000
63.887890 -2653.433890 1200.000000
61.971626 -2654.006545 1200.000000
60.055362 -2654.579200 1200.000000
58.139099 -2655.151855 1200.000000
56.222835 -2655.724511 1200.000000
54.306572 -2656.297166 1200.000000
52.390308 -2656.869821 1200.000000
50.474045 -2657.442476 1200.000000
48.557781 -2658.015131 1200.000000
46.641518 -2658.587786 1200.000000
44.725254 -2659.160442 1200.000000
42.808990 -2659.733097 1200.000000
40.892727 -2660.305752 1200.000000
38.976463 -2660.878407 1200.000000
37.060200 -2661.451062 1200.000000
35.143936 -2662.023717 1200.000000
33.227673 -2662.596373 1200.000000
31.311409 -2663.169028 1200.000000
29.395145 -2663.741683 1200.000000
27.478882 -2664.314338 1200.000000
25.562618 -2664.886993 1200.000000
23.646355 -2665.459648 1200.000000
21.730091 -2666.032304 1200.000000
19.813828 -2666.604959 1200.000000
17.897564 -2667.177614 1200.000000
15.981300 -2667.750269 1200.000000
14.065037 -2668.322924 1200.000000
12.148773 -2668.895579 1200.000000
10.232510 -2669.468235 1200.000000
8.316246 -2670.040890 1200.000000
6.399983 -2670.613545 1200.000000
4.483719 -2671.186200 1200.000000
2.567455 -2671.758855 1200.000000
0.651192 -2672.331510 1200.000000
-1.265072 -2672.904166 1200.000000
-3.181335 -2673.476821 1200.000000
-5.097599 -2674.049476 1200.000000
-7.013862 -2674.622131 1200.000000
-8.930126 -2675.194786 1200.000000
-10.846390 -2675.767441 1200.000000
-12.762653 -2676.340097 1200.000000
-14.678917 -2676.912752 1200.000000
-16.595180 -2677.485407 1200.000000
-18.511444 -2678.058062 1200.000000
-20.427707 -2678.630717 1200.000000
-22.343971 -2679.203372 1200.000000
-24.260234 -2679.776028 1200.000000
-26.176498 -2680.348683 1200.000000
-28.092762 -2680.921338 1200.000000
-30.009025 -2681.493993 1200.000000
-31.925289 -2682.066648 1200.000000
-33.841552 -2682.639303 1200.000000
-35.757816 -2683.211959 1200.000000
-37.674079 -2683.784614 1200.000000
-39.590343 -2684.357269 1200.000000
-41.506607 -2684.929924 1200.000000
